ply
format ascii 1.0
comment PCL generated
element vertex 633
property float x
property float y
property float z
property float nx
property float ny
property float nz
property float curvature
element camera 0
property float view_px
property float view_py
property float view_pz
property float x_axisx
property float x_axisy
property float x_axisz
property float y_axisx
property float y_axisy
property float y_axisz
property float z_axisx
property float z_axisy
property float z_axisz
property float focal
property float scalex
property float scaley
property float centerx
property float centery
property int viewportx
property int viewporty
property float k1
property float k2
end_header
-0.0050531798 -0.036285352 -0.084836125 -0.10880576 -0.99238616 0.05771571 0
0.0049782055 -0.036107387 -0.084945828 0.14231889 -0.98879814 0.044984911 0
0.014879354 -0.033283308 -0.085124165 0.3952572 -0.91812426 0.028630024 0
0.020545354 -0.030340564 -0.08487238 0.56884533 -0.82230932 0.014912922 0
-0.031561323 -0.021915369 -0.085116312 -0.73163831 -0.67785352 0.072249226 0
-0.026625713 -0.026888248 -0.084735051 -0.65823048 -0.74933183 0.072349168 0
0.025797149 -0.026248289 -0.084929667 0.67142731 -0.74104995 0.0055090683 0
0.030747216 -0.020997813 -0.085092448 0.77710956 -0.62933993 -0.0056537678 0
-0.035930511 -0.01500547 -0.084827662 -0.88903844 -0.4527171 0.068248942 0
0.034600697 -0.014890182 -0.08488334 0.89099211 -0.45355111 -0.020602304 0
-0.040233068 -0.0012114653 -0.086299151 -0.98305738 -0.17379682 0.058250178 0
-0.039307654 -0.0057969773 -0.084459469 -0.97983634 -0.19089495 0.058990575 0
0.038192607 -0.0047511421 -0.084954344 0.97988397 -0.19579519 -0.03862121 0
-0.040371656 0.0042343205 -0.085431673 -0.99743497 0.054012112 0.046967112 0
-0.03985209 0.0085855518 -0.08344759 -0.99293137 0.11032248 0.043775052 0
0.038982525 0.004965168 -0.084968679 0.99775648 0.042108305 -0.052047089 0
-0.038338721 0.01535977 -0.084919646 -0.94879597 0.31438243 0.03082075 0
0.037256114 0.014893381 -0.084930152 0.95545012 0.28837067 -0.062907651 0
-0.033464435 0.025231387 -0.084972002 -0.83162999 0.55519432 0.012282786 0
-0.029926503 0.029894628 -0.083909258 -0.77710646 0.62934387 0.0056532822 0
0.029261537 0.029209619 -0.085537747 0.73163766 0.67785424 -0.072249629 0
0.033086646 0.024126932 -0.084823556 0.85293978 0.51731485 -0.069849603 0
-0.024943193 0.034353513 -0.084900163 -0.62301677 0.78214341 -0.010091859 0
-0.017708879 0.039113358 -0.085085921 -0.4135938 0.91005242 -0.027289011 0
0.01765852 0.038432103 -0.085050836 0.5075832 0.85870641 -0.070587933 0
0.024738435 0.033648938 -0.084854476 0.64030516 0.76471382 -0.072264127 0
-0.012677174 0.040904347 -0.084671713 -0.31448364 0.9486441 -0.034271535 0
-0.0046710167 0.042586416 -0.085005946 -0.098761469 0.99397993 -0.047433689 0
0.0052044368 0.04240635 -0.084846467 0.15007919 0.98688269 -0.059487093 0
0.012363244 0.04076774 -0.084869675 0.26133236 0.96313864 -0.063791677 0
-0.020674607 -0.030386625 -0.075987257 -0.51043469 -0.85701013 0.070640802 0
-0.015308496 -0.032979842 -0.074843384 -0.38339958 -0.9210999 0.067673646 0
-0.0051520807 -0.035678539 -0.074830845 -0.12529361 -0.99039733 0.05843471 0
0.0048517426 -0.035660036 -0.074971154 0.12672481 -0.99087662 0.045873467 0
0.014712434 -0.03303615 -0.07502117 0.37674403 -0.92583275 0.029961068 0
0.020366017 -0.03029079 -0.075287245 0.56884503 -0.82230949 0.014913273 0
-0.031103775 -0.021365151 -0.07532087 -0.73163849 -0.67785335 0.072249331 0
-0.026085723 -0.026322311 -0.074782394 -0.65530896 -0.75188911 0.072337978 0
0.025605854 -0.026304098 -0.074896663 0.65796608 -0.75301671 0.0068121739 0
0.030760393 -0.021073904 -0.074812241 0.77710879 -0.62934101 -0.0056536561 0
-0.035128903 -0.015062593 -0.074849568 -0.88247401 -0.46533382 0.068586014 0
0.034843635 -0.014838018 -0.074930318 0.88534427 -0.4645167 -0.019742539 0
-0.038893573 -0.0048615383 -0.074850701 -0.97826189 -0.19870669 0.059323717 0
0.038568571 -0.0048021972 -0.074925676 0.97629303 -0.21317515 -0.037526067 0
-0.040137798 0.0027675084 -0.077077776 -0.99873668 0.0092513077 0.049389951 0
-0.039669786 0.0061477269 -0.074339651 -0.99614424 0.074822776 0.045806397 0
0.039486289 0.0046082493 -0.075040892 0.99863136 0.013325443 -0.050574508 0
0.040034626 0.0051477496 -0.070897631 0.99861753 0.014172066 -0.050617337 0
-0.037979245 0.015450461 -0.075021461 -0.95217109 0.30393317 0.031540077 0
0.037965987 0.01473132 -0.074900955 0.96121567 0.26870179 -0.062159494 0
-0.033366714 0.025137685 -0.074920759 -0.84245801 0.53858781 0.013698553 0
-0.029887998 0.029853877 -0.074061543 -0.77711248 0.6293363 0.0056544999 0
0.029671799 0.029690681 -0.076868668 0.73163676 0.67785525 -0.072249129 0
0.033553649 0.024627224 -0.07484024 0.85042262 0.52143043 -0.069940425 0
-0.024878828 0.034505438 -0.074897833 -0.63542026 0.77211469 -0.0089439331 0
-0.018346995 0.03912206 -0.075177304 -0.48185298 0.8759737 -0.022084698 0
0.018292543 0.038874693 -0.075110167 0.5104357 0.85700953 -0.070640624 0
0.025265954 0.03408793 -0.07483729 0.64207572 0.76322687 -0.072273932 0
-0.012968103 0.041165531 -0.074771382 -0.31448385 0.94864392 -0.034271311 0
-0.0047832094 0.043048058 -0.074905574 -0.11767684 0.99196815 -0.046382952 0
0.0051333848 0.04299916 -0.074836038 0.13327812 0.98933423 -0.058776632 0
0.013144588 0.041190837 -0.074819759 0.29838389 0.95222545 -0.06506712 0
-0.020183165 -0.030110499 -0.069085173 -0.51042813 -0.85701406 0.07064034 0
-0.015441167 -0.032205869 -0.064966783 -0.40378684 -0.91230536 0.068228148 0
-0.0052058944 -0.035076503 -0.064881876 -0.14175726 -0.98813343 0.059137926 0
0.0046602585 -0.035203688 -0.064930163 0.11010787 -0.99281687 0.046805933 0
0.01456775 -0.032754939 -0.064897917 0.3639091 -0.93092275 0.030870045 0
0.0202775 -0.030172504 -0.065395191 0.56884533 -0.82230926 0.014913267 0
-0.030695325 -0.0207722 -0.065622173 -0.73163915 -0.67785257 0.072249621 0
-0.02562689 -0.025704129 -0.064840488 -0.65666795 -0.75070214 0.072343208 0
-0.019686468 -0.0298288 -0.062078398 -0.51043367 -0.85701072 0.070640832 0
0.025218545 -0.026510838 -0.064876847 0.63939834 -0.76882786 0.0085720215 0
0.030757731 -0.021168543 -0.064642079 0.77710891 -0.62934083 -0.0056538666 0
-0.034370463 -0.015016934 -0.064866699 -0.87685108 -0.47580558 0.068856604 0
0.03513781 -0.014671114 -0.064905718 0.88203323 -0.4707939 -0.019246444 0
-0.038293682 -0.0048326533 -0.064897083 -0.97615004 -0.20871414 0.059745505 0
0.038921554 -0.0049495031 -0.06493181 0.97226745 -0.23102407 -0.036384806 0
-0.039295413 0.0054692458 -0.064957537 -0.99766302 0.049381696 0.047222774 0
0.039808597 0.0041645919 -0.06639605 0.99875689 -0.00065780885 -0.049843572 0
0.040201548 0.0044903713 -0.063567951 0.99860978 -0.019864248 -0.048824526 0
-0.037674859 0.015352668 -0.065027706 -0.95774287 0.28575242 0.032776035 0
0.038687542 0.014479449 -0.064886734 0.96830148 0.24219207 -0.061116923 0
-0.033463661 0.024713719 -0.06488917 -0.85855025 0.5124836 0.015877306 0
-0.029850991 0.029814482 -0.064593583 -0.7771095 0.62934005 0.0056536612 0
0.034287628 0.024745461 -0.0649416 0.85847282 0.50810879 -0.069640659 0
-0.024997329 0.034477871 -0.064858809 -0.65272415 0.75756037 -0.0073133018 0
-0.018853001 0.039060775 -0.064967535 -0.56130153 0.82746512 -0.015561499 0
0.018975796 0.039287206 -0.065167442 0.51043439 0.85701025 -0.070640989 0
0.025653852 0.034660961 -0.06493067 0.64412445 0.76149756 -0.072285406 0
0.030350994 0.030389147 -0.063439049 0.73164028 0.67785144 -0.072249457 0
-0.013132797 0.041467156 -0.064882442 -0.31869081 0.94724911 -0.033988148 0
-0.0050763115 0.043468829 -0.06493485 -0.14110537 0.98896879 -0.04505527 0
0.0051016975 0.043571211 -0.06479653 0.11834854 0.99126893 -0.058133844 0
0.013886326 0.041591525 -0.06480033 0.32519737 0.94334447 -0.065938391 0
-0.015030339 -0.031705588 -0.055098645 -0.40758783 -0.91060597 0.068328403 0
-0.0052778572 -0.034468401 -0.054920796 -0.16009197 -0.98528272 0.059903596 0
0.0042922543 -0.034751121 -0.054880992 0.090555653 -0.99473959 0.047883764 0
0.014248865 -0.032536592 -0.054913566 0.34607589 -0.9376567 0.032115653 0
0.020128859 -0.030099722 -0.055711079 0.56884676 -0.82230836 0.014912822 0
-0.030302819 -0.020283114 -0.057058826 -0.73163635 -0.67785567 0.072249033 0
-0.025643257 -0.024754746 -0.054919448 -0.67052102 -0.73835093 0.072384 0
-0.019029781 -0.029569 -0.054182224 -0.5104335 -0.85701084 0.070641041 0
0.024824046 -0.026697366 -0.054909971 0.62191325 -0.7830199 0.010193177 0
0.03077214 -0.02123907 -0.05481999 0.77710891 -0.62934077 -0.0056536952 0
-0.033588819 -0.015000904 -0.054896381 -0.87152982 -0.4854494 0.069098987 0
0.035448074 -0.014487906 -0.054927632 0.87939453 -0.47572014 -0.018855207 0
-0.037679508 -0.0048053125 -0.054919429 -0.97345424 -0.22080985 0.060247902 0
0.039078299 -0.0059180409 -0.055297382 0.95965165 -0.27922282 -0.033215512 0
0.040141206 -0.0012255557 -0.05319171 0.99294472 -0.11019933 -0.043782264 0
-0.038807001 0.0056369165 -0.054919012 -0.99796641 0.042386707 0.047606476 0
0.039976999 0.0049025002 -0.059871498 0.9981544 0.032115608 -0.051540405 0
0.040520463 0.0042629698 -0.054934736 0.99834532 -0.031349063 -0.048206948 0
-0.037392844 0.015172523 -0.054931369 -0.9632622 0.26639262 0.034071483 0
0.03919043 0.015029814 -0.055222839 0.96977913 0.23626724 -0.06087862 0
0.040161233 0.010935915 -0.052689575 0.98306358 0.17376146 -0.058248308 0
-0.033605635 0.024202924 -0.054932825 -0.87600631 0.48195016 0.018357633 0
-0.029812107 0.029776892 -0.055055939 -0.77710879 0.62934095 0.0056534279 0
0.034967244 0.024992991 -0.055028468 0.8633799 0.49975246 -0.06944564 0
-0.025227882 0.034351185 -0.05496205 -0.67288673 0.73972601 -0.0053669936 0
-0.019095985 0.039080702 -0.054735024 -0.56884545 0.82230932 -0.01491305 0
0.019507037 0.039697126 -0.056356296 0.51043564 0.85700959 -0.070640855 0
0.025714802 0.035541736 -0.055058461 0.63562763 0.76860887 -0.072235733 0
0.030768856 0.030890277 -0.054505482 0.73163748 0.67785448 -0.072249494 0
-0.013477844 0.041688886 -0.055109121 -0.34309897 0.938743 -0.032321129 0
-0.0057172836 0.043815553 -0.054828763 -0.17754284 0.98317623 -0.042930473 0
0.0050806529 0.044140443 -0.055011578 0.10404784 0.99290836 -0.05750588 0
0.015014802 0.04182924 -0.054776892 0.35696551 0.93171793 -0.066912286 0
-0.014125171 -0.03143499 -0.0452425 -0.39269876 -0.91715497 0.067929648 0
-0.0051146271 -0.033915311 -0.045136534 -0.17104976 -0.98341221 0.060352296 0
0.0043857484 -0.034275245 -0.045079414 0.077608079 -0.99579936 0.048586223 0
0.014357712 -0.03216349 -0.045075867 0.33395311 -0.94201356 0.032950498 0
0.020033 -0.030026 -0.047956999 0.56884897 -0.82230687 0.014911248 0
-0.025267679 -0.024185101 -0.04512639 -0.67528945 -0.73399138 0.072392613 0
-0.018247034 -0.029255848 -0.044726968 -0.51043439 -0.8570103 0.070640616 0
0.019943001 -0.029973499 -0.041664001 0.56884134 -0.82231206 0.014912753 0
0.024707345 -0.026669452 -0.045069177 0.60637122 -0.79509705 0.011605917 0
0.03087764 -0.021194819 -0.045234818 0.77710855 -0.62934124 -0.0056537855 0
-0.032981228 -0.014736414 -0.045147147 -0.87078214 -0.48678464 0.069132008 0
-0.029617609 -0.019617602 -0.043875393 -0.73163795 -0.67785388 0.072249457 0
0.035513192 -0.014717498 -0.04504795 0.86730313 -0.49748632 -0.017104642 0
-0.0370472 -0.0048640105 -0.045079201 -0.96986037 -0.23593694 0.060865384 0
0.038975324 -0.0074070683 -0.045135729 0.92534029 -0.37822533 -0.02628592 0
0.04037014 -0.0024761541 -0.044709388 0.99048942 -0.1308371 -0.042572748 0
-0.038333949 0.0055073118 -0.045105234 -0.99850881 0.024958102 0.048551861 0
0.04101922 0.0047471486 -0.045085017 0.99838561 -0.029913405 -0.048284523 0
-0.037057094 0.015109107 -0.044921961 -0.96734536 0.25102186 0.035085302 0
0.039404936 0.016845128 -0.045723766 0.9604919 0.27125502 -0.062257685 0
0.040368974 0.012569753 -0.044310991 0.98306358 0.17376162 -0.05824874 0
-0.033304971 0.024441248 -0.045118984 -0.87940085 0.47570857 0.018855963 0
-0.029793393 0.02970848 -0.044894394 -0.77710831 0.62934148 0.0056536598 0
0.035691693 0.025141036 -0.045042474 0.86791509 0.49186063 -0.069256268 0
-0.025425239 0.034315877 -0.045084603 -0.68523663 0.72830862 -0.0041482723 0
-0.019065082 0.039272111 -0.045358006 -0.56884527 0.82230937 -0.01491322 0
0.019904001 0.039990999 -0.049922001 0.5104298 0.85701305 -0.070641011 0
0.02587772 0.036382589 -0.045219146 0.62501866 0.77726716 -0.072162189 0
0.03123818 0.031425048 -0.04473567 0.73163825 0.67785352 -0.072249182 0
-0.014041957 0.041818995 -0.044968698 -0.37309232 0.92730188 -0.030220332 0
-0.0056471699 0.044282127 -0.045026936 -0.1862793 0.98158109 -0.042410139 0
0.0050742486 0.044736046 -0.045229953 0.08840847 0.99446315 -0.056806657 0
0.015476333 0.042327318 -0.045060083 0.35791862 0.93135029 -0.066940077 0
0.020403398 0.040256571 -0.043091942 0.51043504 0.85700983 -0.07064084 0
-0.012941062 -0.031247713 -0.035183985 -0.35660321 -0.93185747 0.066901378 0
-0.0049769781 -0.033338413 -0.035109926 -0.18026967 -0.98174095 0.06072453 0
0.0046740817 -0.033774447 -0.035043143 0.065702811 -0.99662435 0.049224455 0
0.014605531 -0.031731274 -0.035085723 0.31862599 -0.94727087 0.033992838 0
-0.02446357 -0.023967352 -0.035107341 -0.66506177 -0.74327338 0.072371088 0
-0.017573582 -0.028842034 -0.034841146 -0.51043558 -0.85700953 0.0706411 0
0.019793311 -0.02990246 -0.033449151 0.47559804 -0.87937295 0.022576312 0
0.024957243 -0.026351394 -0.035001248 0.5951736 -0.80349827 0.012607651 0
0.03096172 -0.021182174 -0.035097763 0.77710843 -0.62934136 -0.0056539341 0
-0.032497954 -0.01422267 -0.035133712 -0.87337923 -0.482126 0.069016472 0
-0.029184802 -0.019099617 -0.034633078 -0.73163819 -0.67785364 0.072249472 0
0.035499215 -0.015049944 -0.034973104 0.85087925 -0.52515203 -0.014826923 0
-0.036354765 -0.0050375196 -0.035016589 -0.96344715 -0.2606616 0.061847437 0
0.039119277 -0.0077390918 -0.035148554 0.92236203 -0.38546705 -0.025755523 0
0.04072497 -0.0027126423 -0.034782566 0.98271507 -0.18085073 -0.03954947 0
-0.03783188 0.0051724943 -0.035022885 -0.99871707 -0.0065032654 0.050219867 0
0.041523568 0.0050861635 -0.035008889 0.99838114 -0.030078087 -0.048275579 0
-0.036666341 0.015217345 -0.034968242 -0.97015685 0.23981856 0.035815958 0
0.039578684 0.018742742 -0.035964679 0.92820644 0.36622822 -0.065648735 0
0.040688641 0.013945792 -0.034810845 0.98290813 0.17462577 -0.058286652 0
-0.032890234 0.024836935 -0.035031881 -0.87884682 0.47673446 0.018774314 0
-0.029712571 0.029717248 -0.0347495 -0.77710873 0.62934101 0.005653372 0
0.03653013 0.025059348 -0.034984674 0.87276441 0.48323411 -0.069043957 0
-0.025122471 0.034692749 -0.035020031 -0.68459529 0.7289111 -0.0042116479 0
-0.019085128 0.039437756 -0.035454538 -0.56884593 0.8223089 -0.014913192 0
0.026314542 0.037068896 -0.035087314 0.61380833 0.78615844 -0.072070479 0
0.031852629 0.031831946 -0.03469513 0.73163831 0.67785347 -0.072249405 0
-0.014367664 0.041993909 -0.034927256 -0.40137374 0.91548061 -0.028185183 0
-0.0052024364 0.044808783 -0.035038244 -0.18332751 0.98212898 -0.042586353 0
0.0051491968 0.045325525 -0.035129242 0.076475218 0.99548262 -0.05626484 0
0.015203003 0.043160889 -0.034995202 0.33045012 0.94150573 -0.066103742 0
0.020923933 0.040656414 -0.034479596 0.51043499 0.85700989 -0.070640787 0
-0.012074959 -0.030918652 -0.025329275 -0.32048425 -0.94496655 0.065788291 0
-0.005082597 -0.032690156 -0.025100356 -0.19344322 -0.9791978 0.061248295 0
0.0049792244 -0.03326546 -0.02499867 0.052058175 -0.9973942 0.049946573 0
0.01448798 -0.031409658 -0.0250824 0.31448761 -0.94864273 0.034271769 0
-0.02379334 -0.023637827 -0.025087114 -0.65951538 -0.74820077 0.072353728 0
-0.017106066 -0.028297227 -0.024852438 -0.51043421 -0.85701036 0.070641018 0
0.019294491 -0.029778421 -0.024032757 0.31711471 -0.94777417 0.034094393 0
0.025130251 -0.02607494 -0.024993317 0.57850486 -0.81555748 0.014075478 0
0.031013234 -0.021209128 -0.02500453 0.77710915 -0.62934047 -0.0056538191 0
-0.032031268 -0.013685267 -0.025159912 -0.87973547 -0.47047123 0.068719834 0
-0.028677696 -0.018588994 -0.024706736 -0.73163849 -0.67785341 0.072249405 0
0.035573579 -0.01520573 -0.024964239 0.83797741 -0.54554754 -0.013107955 0
-0.035615593 -0.0053127529 -0.025028599 -0.95530039 -0.2888622 0.062926464 0
0.039299913 -0.0079666581 -0.025274757 0.92236251 -0.38546589 -0.025755644 0
0.040972319 -0.0031832731 -0.024790062 0.97166425 -0.23357373 -0.036220167 0
-0.037310831 0.0048394338 -0.02495306 -0.99801987 -0.035784099 0.051727526 0
0.041984931 0.0049338681 -0.025004372 0.99788827 -0.044300221 -0.047501612 0
-0.036277965 0.015235926 -0.024934666 -0.9737919 0.22444271 0.036807604 0
0.039833993 0.019634113 -0.027646955 0.89352596 0.44383186 -0.068005212 0
0.041169655 0.014509471 -0.024874318 0.97952586 0.19246098 -0.059057664 0
-0.032612115 0.024948997 -0.02501197 -0.88283181 0.46928993 0.019365571 0
-0.029723985 0.029612767 -0.024676288 -0.77710938 0.62934011 0.0056539401 0
0.037452281 0.024799146 -0.024984302 0.88151854 0.46713445 -0.068632931 0
0.040082198 0.0201708 -0.020884195 0.89352471 0.44383422 -0.06800551 0
-0.024925865 0.034920957 -0.024920987 -0.68673545 0.72689635 -0.0039987951 0
-0.019249212 0.039504532 -0.0255164 -0.56884581 0.82230896 -0.014913045 0
0.026667248 0.037782684 -0.025048485 0.59968513 0.79699618 -0.071936399 0
0.032427926 0.032271069 -0.024749653 0.73163736 0.67785454 -0.072249338 0
-0.01428173 0.042319953 -0.024939697 -0.41125497 0.91110659 -0.027461557 0
-0.0047644912 0.04532316 -0.024979949 -0.17832553 0.98303658 -0.042883925 0
0.0050907298 0.045899246 -0.025063116 0.061453875 0.99656177 -0.055570912 0
0.015113998 0.043900467 -0.024965126 0.30872858 0.94889855 -0.065408401 0
0.021687852 0.04100636 -0.024714816 0.51043385 0.85701054 -0.070640795 0
-0.011356496 -0.030504126 -0.0154256 -0.27185968 -0.96019554 0.064162493 0
-0.0055246293 -0.031945813 -0.014967334 -0.21187328 -0.97533071 0.061964989 0
0.0052027204 -0.032749068 -0.01489995 0.039259013 -0.99794632 0.050614841 0
0.014216933 -0.031140426 -0.015141578 0.31408161 -0.94877625 0.034298792 0
-0.023226785 -0.023228593 -0.015170213 -0.65906185 -0.74860042 0.072352268 0
-0.016843384 -0.027620267 -0.014742427 -0.51043266 -0.85701132 0.07064075 0
0.018590946 -0.029657261 -0.014224358 0.31448534 -0.94864339 0.034271836 0
0.025404492 -0.025704006 -0.014891518 0.55944771 -0.82871652 0.015720487 0
0.03105812 -0.021242216 -0.015091971 0.77317929 -0.63416612 -0.0052032764 0
-0.031621046 -0.01301716 -0.015210016 -0.8897295 -0.45136291 0.068212345 0
-0.028089479 -0.018153336 -0.014665714 -0.73274124 -0.67666203 0.072241664 0
0.035634607 -0.015347857 -0.014906042 0.82362258 -0.56702644 -0.011259647 0
-0.034827545 -0.0056464123 -0.014950312 -0.94573873 -0.31856015 0.064013436 0
0.039432097 -0.0083192075 -0.015263828 0.92236251 -0.38546589 -0.025755662 0
0.041116223 -0.0038131615 -0.014806679 0.95924848 -0.2806161 -0.033121992 0
-0.036766868 0.0045275441 -0.014923484 -0.996351 -0.066684499 0.053272005 0
0.042408481 0.0043908563 -0.014908383 0.99680191 -0.065095201 -0.046351828 0
-0.035908353 0.015170567 -0.01489951 -0.97789186 0.20562898 0.038003709 0
0.041793708 0.014352921 -0.014873869 0.98075366 0.18618874 -0.058788795 0
-0.032628432 0.024436722 -0.014936708 -0.89531213 0.44493106 0.021272119 0
-0.029656067 0.029609784 -0.015017949 -0.77710962 0.62933975 0.005653928 0
0.038127307 0.024998244 -0.015018915 0.88878053 0.45322105 -0.068262488 0
0.040339384 0.020721424 -0.013910272 0.89352477 0.4438341 -0.068005249 0
-0.024764938 0.035054933 -0.014828224 -0.68886966 0.72487533 -0.0037859865 0
-0.019434735 0.039565753 -0.015064509 -0.56884485 0.82230961 -0.014913253 0
0.027048735 0.03844244 -0.015246538 0.58758104 0.80597305 -0.071804807 0
0.032943014 0.032777257 -0.014783756 0.73163736 0.67785454 -0.072249576 0
-0.013994445 0.042721707 -0.014872071 -0.41548055 0.90919679 -0.027150061 0
-0.0044030207 0.045802537 -0.014973742 -0.1762491 0.98340565 -0.043007169 0
0.0047461833 0.046458401 -0.0149337 0.040529884 0.99768615 -0.054585297 0
0.015038789 0.044623386 -0.014896611 0.28739759 0.95562381 -0.064697593 0
0.02274959 0.041211668 -0.014551353 0.5104357 0.85700947 -0.070641108 0
-0.010661913 -0.030155683 -0.0072741415 -0.24786735 -0.96672332 0.063308254 0
-0.0058760317 -0.031222386 -0.0050149849 -0.22713928 -0.97185183 0.062544353 0
0.0054388461 -0.032237131 -0.004998296 0.034742553 -0.99810189 0.050848842 0
0.013534834 -0.031010626 -0.005351379 0.30379945 -0.95209342 0.034986772 0
-0.022784596 -0.022708043 -0.0051781218 -0.66684526 -0.74167317 0.072375871 0
-0.016176404 -0.027170382 -0.0047828169 -0.48651356 -0.87085015 0.070175245 0
-0.0098024998 -0.02993875 -0.000596 -0.24786742 -0.96672326 0.063308395 0
0.01803693 -0.029498188 -0.0047362051 0.31448355 -0.94864404 0.034271259 0
0.025638029 -0.025352903 -0.0049936259 0.55104125 -0.83431613 0.016435321 0
0.031117961 -0.021224489 -0.0051959744 0.73919672 -0.67348802 -0.001434577 0
-0.031214852 -0.012321774 -0.0053112581 -0.89352494 -0.44383389 0.068005159 0
-0.027553128 -0.017666139 -0.0048033176 -0.74590367 -0.66213626 0.072133921 0
0.03573633 -0.015396527 -0.0050242231 0.81332266 -0.58172739 -0.0099709816 0
-0.034037977 -0.005932542 -0.0049686637 -0.93632644 -0.34507337 0.064939871 0
0.039543275 -0.0087188473 -0.0053006141 0.92236245 -0.38546607 -0.025755569 0
0.041234288 -0.0044379723 -0.0050362917 0.94683808 -0.32026994 -0.030412972 0
-0.036212467 0.0042475727 -0.0050194208 -0.99427927 -0.091864511 0.054495085 0
0.04283528 0.0041141817 -0.0051188325 0.99551243 -0.083060339 -0.045341004 0
-0.035587776 0.01484855 -0.0050568548 -0.98316592 0.17834887 0.039704375 0
0.042380396 0.014352296 -0.0050414982 0.9827382 0.17556646 -0.058328297 0
-0.032656882 0.023842992 -0.0050107073 -0.90762842 0.41913024 0.023246542 0
-0.029611757 0.029577496 -0.0053373082 -0.77710652 0.62934369 0.0056534433 0
0.038548928 0.025644548 -0.0053056483 0.89335465 0.44417518 -0.068014398 0
0.040614162 0.021598417 -0.0045714867 0.89548218 0.43988848 -0.067895159 0
-0.024900958 0.034899306 -0.0051122895 -0.70202726 0.71214592 -0.0024580245 0
-0.019566242 0.039659053 -0.0049031186 -0.56884569 0.82230902 -0.014912855 0
0.027971121 0.038727295 -0.0053731925 0.59859449 0.79781663 -0.071925014 0
0.03335534 0.033375237 -0.004984892 0.73512495 0.6740734 -0.072224401 0
-0.013936106 0.042994838 -0.0050386502 -0.42725432 0.90374959 -0.026275152 0
-0.0048580789 0.046118755 -0.0050874436 -0.20435511 0.97802442 -0.041319951 0
0.0041835657 0.046998866 -0.0049824747 0.015384711 0.99845624 -0.053370524 0
0.015038003 0.045287963 -0.0051105744 0.27452764 0.95942992 -0.064255379 0
0.023623927 0.041486427 -0.0049003921 0.51043427 0.85701036 -0.070640899 0
-0.0048276647 -0.030874103 0.0045296056 -0.23376592 -0.97026324 0.062790871 0
0.0054068849 -0.03173396 0.0048995181 0.034742426 -0.99810195 0.050848536 0
0.012774437 -0.030883141 0.0047324514 0.27573392 -0.96052808 0.036832727 0
-0.022322413 -0.022210341 0.0047561573 -0.6757068 -0.73360723 0.072393373 0
-0.015703566 -0.026642518 0.0049419724 -0.48145017 -0.87366807 0.07007084 0
-0.0087789316 -0.029752588 0.0062525338 -0.2478677 -0.96672314 0.06330815 0
0.017671429 -0.029267067 0.0050141746 0.3144832 -0.94864416 0.034271367 0
0.025578065 -0.025192412 0.0049014604 0.53981036 -0.84160727 0.01738029 0
0.031177972 -0.021157211 0.0048854183 0.70064986 -0.71350056 0.0025984268 0
-0.030848509 -0.011534882 0.0046372116 -0.89352542 -0.44383284 0.068005055 0
-0.027073462 -0.017090136 0.00501876 -0.76012021 -0.64578307 0.071982414 0
0.035870731 -0.015374038 0.0049486128 0.80636901 -0.59134239 -0.0091171302 0
-0.033402454 -0.0058045997 0.0049094381 -0.93345141 -0.35272866 0.065199673 0
0.039645709 -0.009137922 0.0046382574 0.92236209 -0.38546708 -0.025755595 0
0.04149463 -0.0045834715 0.0049305027 0.94141644 -0.33596975 -0.029315174 0
-0.035683367 0.0043800101 0.0049302559 -0.99350667 -0.099669114 0.054867715 0
0.04332215 0.0044285497 0.0048559532 0.99452591 -0.094450936 -0.044691637 0
-0.035198547 0.014820732 0.0048684417 -0.985686 0.16362864 0.040605627 0
0.042921204 0.014641936 0.0049451245 0.98306334 0.17376253 -0.058249217 0
-0.032386955 0.023886416 0.0048783361 -0.91502351 0.40265685 0.024483571 0
-0.029577112 0.02952824 0.0049205767 -0.77710938 0.62934023 0.005653827 0
0.038777821 0.026705069 0.004624173 0.89352506 0.44383353 -0.06800542 0
0.040943317 0.02242635 0.0052387989 0.90338653 0.42349327 -0.067426339 0
-0.025043136 0.03481039 0.004853589 -0.7191112 0.69489467 -0.00069593586 0
-0.019673863 0.039757587 0.0046344311 -0.56884575 0.82230902 -0.01491311 0
0.028724361 0.03913546 0.0045007234 0.60350716 0.79410249 -0.071974806 0
0.033707328 0.034048826 0.0049692206 0.74182129 0.66670275 -0.072170503 0
-0.014722425 0.042848807 0.0050100908 -0.46477911 0.88511693 -0.023419449 0
-0.0053563351 0.046420757 0.0049505485 -0.23413412 0.97140223 -0.039483551 0
0.0043068598 0.047532827 0.0049758703 0.0039224862 0.99859715 -0.052805185 0
0.015055825 0.045951325 0.0048859464 0.26412439 0.96237016 -0.063890614 0
0.024119126 0.042008776 0.0050144494 0.51043361 0.85701072 -0.070640773 0
-0.0030360674 -0.03068815 0.014443955 -0.24298802 -0.96797287 0.063130155 0
0.0053305612 -0.031227643 0.014890113 0.034366559 -0.99811393 0.050867639 0
0.012159356 -0.030679934 0.014708225 0.23081087 -0.97218883 0.039690662 0
-0.021798477 -0.021767369 0.014639915 -0.68529749 -0.72465527 0.072400734 0
-0.015351817 -0.026044564 0.014945091 -0.48960182 -0.86911261 0.070237465 0
-0.0075929975 -0.029465225 0.01528354 -0.24786738 -0.9667232 0.063307777 0
0.01725959 -0.029042009 0.015024099 0.3144837 -0.94864404 0.034271255 0
0.02544417 -0.025074303 0.014883308 0.52862215 -0.84865975 0.018310411 0
0.031155752 -0.021115813 0.015022185 0.65118903 -0.75887889 0.0074591069 0
-0.030448945 -0.010870767 0.01422267 -0.89352512 -0.44383362 0.068005107 0
-0.026711792 -0.016323719 0.015055647 -0.77460241 -0.62836111 0.071787596 0
0.036115609 -0.01518879 0.0149413 0.8035264 -0.59520447 -0.0087717278 0
-0.032793481 -0.0055838288 0.014937666 -0.93156058 -0.35766235 0.065364987 0
0.039793666 -0.0094246101 0.014231273 0.92236173 -0.38546777 -0.025755724 0
0.041736934 -0.0047436659 0.014933268 0.93654209 -0.34940585 -0.028363865 0
-0.035143837 0.0044861468 0.01491003 -0.99245656 -0.10940207 0.055327933 0
0.043796517 0.004642732 0.014952861 0.99342841 -0.10563962 -0.04404749 0
-0.034785651 0.014799048 0.014956777 -0.98773414 0.15055752 0.04139626 0
0.043467175 0.014880278 0.014870888 0.9830634 0.1737624 -0.058249235 0
-0.032016609 0.024124878 0.014916508 -0.92115682 0.3883523 0.025543384 0
-0.029563911 0.029440358 0.01530035 -0.79543895 0.6059835 0.0077996012 0
0.039042182 0.027705768 0.014628097 0.89352489 0.44383398 -0.068005405 0
0.041278988 0.023220092 0.015025863 0.90898377 0.41140038 -0.067068607 0
-0.025010463 0.034871735 0.014930345 -0.73126304 0.68209535 0.00058504957 0
-0.019804666 0.039845377 0.014469421 -0.56884575 0.82230902 -0.014913226 0
0.029420046 0.039557237 0.014166065 0.61170852 0.78779519 -0.072052062 0
0.034124725 0.034642197 0.014946634 0.74981475 0.65770817 -0.072095931 0
-0.015124431 0.042876657 0.014969843 -0.49076304 0.87103075 -0.021379687 0
-0.0054351692 0.046808291 0.014928395 -0.25063953 0.96731681 -0.038444184 0
0.0045420518 0.048064463 0.014938175 -0.0057504983 0.99861366 -0.052322868 0
0.015052575 0.04660964 0.014833076 0.25273645 0.96545017 -0.063484341 0
0.024653196 0.042509079 0.01494366 0.51010537 0.85720664 -0.070634671 0
-0.0016991216 -0.030384347 0.024324967 -0.24786828 -0.96672297 0.063308246 0
0.0052669579 -0.030715456 0.024937721 0.024009623 -0.99838954 0.051399112 0
0.011659148 -0.030402847 0.024613267 0.16226049 -0.98577404 0.043829802 0
-0.021287652 -0.021294847 0.024609024 -0.70511925 -0.70538545 0.072375461 0
-0.015217642 -0.025309818 0.02498192 -0.49949047 -0.86345142 0.070433311 0
-0.0064371503 -0.029121393 0.025059499 -0.24786705 -0.96672338 0.063307837 0
0.016778031 -0.028840598 0.025016936 0.31448269 -0.94864434 0.034271356 0
0.025400668 -0.024880528 0.024847567 0.51629913 -0.85619026 0.019322369 0
0.031186493 -0.020972665 0.024966458 0.60572398 -0.79558939 0.011663609 0
-0.030171745 -0.010244084 0.021952666 -0.89352697 -0.44382969 0.068005241 0
-0.026320206 -0.015569457 0.025068102 -0.78589976 -0.61419392 0.071605638 0
0.036195867 -0.015219653 0.024948653 0.79546535 -0.60594887 -0.0078029954 0
-0.032192707 -0.0053540808 0.024892231 -0.92911524 -0.36392981 0.065573305 0
-0.029929668 -0.0097500002 0.028355999 -0.89352614 -0.44383135 0.068005249 0
0.039894916 -0.0097736139 0.023076227 0.92236096 -0.38546979 -0.025755573 0
0.041931614 -0.0049902727 0.0249226 0.93144542 -0.36284789 -0.027400976 0
-0.034615044 0.0047182818 0.024895927 -0.99191523 -0.11409882 0.055548277 0
0.04427062 0.0049095578 0.025017507 0.99294454 -0.1102009 -0.043782618 0
-0.034356199 0.014861188 0.024994744 -0.98955202 0.13787608 0.0421554 0
0.044024345 0.015073432 0.024876155 0.98434931 0.16643554 -0.057927348 0
-0.03179558 0.023990709 0.024857443 -0.92236251 0.38546604 0.025755752 0
-0.029563626 0.029177859 0.025609192 -0.8764773 0.48109037 0.018426513 0
0.039348941 0.028613709 0.024584455 0.89352477 0.4438343 -0.068005301 0
0.041659623 0.023921715 0.024882901 0.91382182 0.40059394 -0.066740766 0
-0.024891416 0.035007216 0.025033176 -0.74129218 0.67118037 0.0016612138 0
-0.019897571 0.039947428 0.023641001 -0.56884569 0.82230908 -0.014913145 0
0.029920001 0.039930001 0.021709001 0.62742186 0.77532685 -0.072180614 0
0.034586623 0.035177406 0.024874207 0.75557363 0.65109092 -0.072034918 0
-0.015302858 0.043002903 0.024861082 -0.50782281 0.86122912 -0.020011099 0
-0.0053471862 0.047238957 0.02502716 -0.26461136 0.96362376 -0.037551649 0
0.0047972919 0.048592277 0.024895715 -0.015979581 0.99852926 -0.051807456 0
0.01504494 0.047266446 0.024818117 0.24793488 0.96670574 -0.063310616 0
0.025089554 0.043063227 0.024831166 0.50592399 0.85968757 -0.070556261 0
0.030235142 0.040153716 0.027092572 0.65879625 0.74883431 -0.072350964 0
-0.00062018755 -0.030121066 0.032569069 -0.24786839 -0.96672302 0.063307978 0
0.0049351221 -0.030244498 0.034273241 0.012267053 -0.99857205 0.051994368 0
0.01122351 -0.030129761 0.032211937 0.077533066 -0.99580503 0.048589759 0
-0.020794768 -0.020820463 0.034183335 -0.7299844 -0.67963308 0.072260775 0
-0.015131575 -0.024548272 0.034884665 -0.51110429 -0.85660994 0.070653059 0
-0.0052696588 -0.028780989 0.034828044 -0.24831958 -0.96660608 0.063324757 0
0.008008888 -0.029927872 0.038279206 0.019081689 -0.99848288 0.051649954 0
0.015680308 -0.028775964 0.035472576 0.27700654 -0.96016496 0.036750045 0
0.025265031 -0.024745105 0.034725256 0.50297725 -0.86405885 0.020402204 0
0.031122435 -0.02085837 0.034521483 0.57033229 -0.82128108 0.014784801 0
-0.025496015 -0.015457226 0.03490727 -0.77920997 -0.62264645 0.071716815 0
0.028006405 -0.011821548 0.039883539 -0.049812097 -0.052545987 -0.99737537 0
0.034498665 -0.013771406 0.038751867 0.7365666 -0.60881567 -0.29464069 0
0.040406156 -0.010793397 0.038779374 0.8876912 -0.41828746 -0.19245781 0
-0.031797379 -0.004709424 0.034552313 -0.92854393 -0.36537665 0.065621175 0
-0.029640837 -0.0092230551 0.035593245 -0.89352566 -0.44383246 0.068005353 0
0.017831612 -0.0021334188 0.039881337 0.88186926 0.47143033 0.0077520413 0
0.025513725 -0.0049269674 0.039644748 0.049796157 0.052556284 0.99737567 0
0.034670491 -0.0045400006 0.039167203 -0.049810562 -0.052546047 -0.99737549 0
0.041963443 -0.0043654898 0.037610214 0.92214692 -0.37170622 -0.10714287 0
-0.034071293 0.0048269583 0.034885045 -0.99064463 -0.12443423 0.056029152 0
0.0075800745 0.0076645729 0.039877012 0.04982717 0.05252628 0.99737573 0
0.015365979 0.0051278309 0.039621774 0.049806539 0.052551139 0.99737537 0
0.025272576 0.0048634103 0.039141092 0.049809184 0.052548107 0.99737549 0
0.034677133 0.0052105393 0.038653195 -0.049872655 -0.052890982 -0.99735415 0
0.043162592 0.0051404056 0.03771444 0.99386513 -0.1089214 -0.019189466 0
-0.03391692 0.014841494 0.035280433 -0.99103856 0.12652381 0.042827804 0
-0.0027362006 0.01759018 0.039869409 -0.049795631 -0.052443363 -0.99738163 0
0.0051085521 0.015306178 0.039597958 -0.049816921 -0.052539874 -0.99737549 0
0.015155195 0.015097111 0.039107259 0.049860466 0.052500434 0.99737531 0
0.02525883 0.015123292 0.038601261 -0.049815319 -0.052545939 -0.99737525 0
0.034690946 0.014849002 0.038144566 -0.049806088 -0.052543912 -0.99737585 0
0.043096889 0.014915004 0.037333254 0.98297495 0.16857748 0.073088415 0
-0.031570058 0.023863601 0.034835972 -0.92236269 0.38546541 0.025755897 0
-0.029526487 0.028726038 0.035222311 -0.91833961 0.39499965 0.025052497 0
-0.012955062 0.027150495 0.039875988 0.049806312 0.052542962 0.99737585 0
-0.0050807269 0.025388727 0.039575547 -0.049810849 -0.052550685 -0.99737519 0
0.0049815918 0.025204521 0.039082974 -0.049796108 -0.052553978 -0.99737579 0
0.015134003 0.025277795 0.038572062 -0.049820077 -0.052549437 -0.99737483 0
0.02515319 0.025038198 0.038084291 0.049807984 0.052540544 0.99737591 0
0.034825806 0.024777986 0.037614454 0.89412361 0.44688943 0.028857501 0
0.041686215 0.023897311 0.036839735 0.9031086 0.4071933 0.13633983 0
-0.023062751 0.035326894 0.037375797 -0.72746742 0.65967137 0.18874583 0
-0.014515778 0.034898732 0.039545991 -0.0071827262 0.13430314 0.99091429 0
-0.0047944714 0.034685947 0.039071467 0.049815219 0.052555133 0.99737471 0
0.0049930867 0.035020601 0.038564868 0.049788434 0.052557774 0.99737597 0
0.014824056 0.034737047 0.038089052 0.049807079 0.052545536 0.99737561 0
0.02465806 0.034817215 0.037603941 0.51186401 0.85834265 -0.035258837 0
0.033844057 0.034148242 0.036949012 0.72945577 0.64577788 0.22553346 0
-0.020073665 0.040056504 0.036364499 -0.54802716 0.81664747 0.18097836 0
-0.014062255 0.042429809 0.037672397 -0.46167234 0.80714631 0.36793128 0
-0.0048022536 0.044267189 0.038100302 -0.22872123 0.87820745 0.42004552 0
0.0049576531 0.044981733 0.037768696 -0.004676993 0.91097003 0.41244611 0
0.014769314 0.044491779 0.03734323 0.2413573 0.89720482 0.36982441 0
0.024283836 0.042615645 0.036882121 0.47088489 0.82515013 0.31208119 0
0.030502466 0.040435437 0.03509336 0.60805154 0.76642078 0.20705663 0
-0.00079300004 -0.030192796 0.042441987 -0.25256565 -0.96342391 -0.089581653 0
0.0049959589 -0.030426405 0.042300627 -0.016174752 -0.99379689 -0.11002832 0
0.011883709 -0.030299587 0.041976005 0.083986022 -0.98469853 -0.15269272 0
-0.020415371 -0.020415526 0.0424527 -0.73202324 -0.67819279 0.064780347 0
-0.013909583 -0.022742685 0.043977022 -0.48489511 -0.78521514 0.38511556 0
-0.0046363273 -0.025086233 0.043403044 -0.25976035 -0.89196736 0.37002546 0
0.0052655176 -0.025584728 0.042882942 -0.0039816326 -0.91940409 0.3932941 0
0.015127232 -0.025268536 0.042761613 0.24575275 -0.90279579 0.35293821 0
0.024517041 -0.023222933 0.042925276 0.48347014 -0.80939215 0.33337829 0
0.031232836 -0.020946601 0.041148014 0.58097053 -0.80820876 0.096290879 0
-0.023310861 -0.01410652 0.043906379 -0.69960618 -0.55302453 0.45245448 0
-0.015239895 -0.015039303 0.042728532 -0.64249307 -0.64640313 0.41154066 0
-0.0049400232 -0.014926654 0.041692741 0.049785238 0.052537773 0.99737716 0
0.0050676833 -0.01512841 0.041203242 -0.04978697 -0.052541189 -0.99737692 0
0.014952752 -0.014941297 0.040699791 0.049807701 0.05253052 0.99737644 0
0.024161449 -0.015617776 0.040848222 0.56128508 -0.77788341 0.2825889 0
0.034372635 -0.015139782 0.04459957 0.71504623 -0.56172103 0.41614714 0
0.040225167 -0.010608166 0.040622998 0.85720122 -0.32732844 0.39757028 0
-0.031073829 -0.0028310048 0.042877801 -0.86500561 -0.25380018 0.4328405 0
-0.025374649 -0.0051880889 0.043292526 -0.78762031 -0.34237647 0.51228166 0
-0.015001262 -0.0049776365 0.041670788 0.049820475 0.052553464 0.99737453 0
-0.0051161726 -0.0051675034 0.041187361 0.049808413 0.052546658 0.99737561 0
0.0049459338 -0.0051956987 0.040686049 0.049807221 0.052547555 0.99737561 0
0.014455267 -0.0060486677 0.040256225 0.049809422 0.052542586 0.99737573 0
0.021177687 -0.0088432487 0.040067703 0.049813159 0.052553173 0.99737495 0
0.03864054 -0.00643952 0.047435179 0.84834731 -0.34639788 0.40039396 0
0.041469742 -0.0038088569 0.043528426 0.86237282 -0.31392732 0.39719367 0
-0.031757023 0.0051638139 0.043307271 -0.85835856 -0.076730512 0.50728005 0
-0.025085002 0.0047542094 0.042328965 -0.8660506 -0.1073681 0.4882915 0
-0.015225386 0.0049373982 0.04115973 -0.049801823 -0.052563429 -0.99737501 0
-0.0051801442 0.0049172924 0.040659014 -0.049808107 -0.052557491 -0.99737495 0
0.0041428739 0.0039849933 0.040242627 0.049797226 0.052539036 0.9973765 0
0.011073519 0.0010292174 0.040052176 0.049810153 0.052512344 0.99737734 0
0.042485528 0.0049250326 0.045375086 0.92187685 -0.082402594 0.37861979 0
-0.031644024 0.014552834 0.042813964 -0.82461321 0.14328091 0.54725111 0
-0.025188936 0.014778505 0.042031337 -0.84973466 0.17157373 0.49851125 0
-0.015382472 0.015111662 0.040631521 -0.049806908 -0.052544724 -0.99737573 0
-0.0061658137 0.014059712 0.040226724 -0.049811009 -0.052541349 -0.99737573 0
0.00085277937 0.010855473 0.040044993 -0.049805734 -0.052504066 -0.99737793 0
0.039764419 0.018475713 0.049397919 0.91437602 0.17988232 0.36271048 0
0.042162627 0.014776951 0.04518237 0.91544431 0.17282465 0.3634465 0
-0.030858792 0.022176417 0.041485567 -0.65562493 0.32287827 0.68257284 0
-0.025304614 0.024805812 0.042313244 -0.75498444 0.40183374 0.518197 0
-0.016006386 0.024071101 0.040190674 -0.049813747 -0.052552518 -0.99737495 0
-0.0092756059 0.020691441 0.040032592 -0.049789518 -0.052526094 -0.99737763 0
0.037794184 0.025961574 0.0462805 0.82332438 0.44420111 0.35330206 0
0.041070409 0.02224284 0.043024123 0.84780616 0.39359042 0.35540295 0
-0.023073619 0.032486487 0.042552426 -0.64634073 0.57543021 0.50112247 0
-0.016468022 0.037128519 0.046254702 -0.53746819 0.72925645 0.42345357 0
-0.0097366674 0.039952666 0.049759001 -0.49224725 0.7650941 0.41511884 0
0.026884219 0.038135134 0.046571385 0.51387948 0.78212941 0.35242221 0
0.033157714 0.03343495 0.044709306 0.68718511 0.63708651 0.34913817 0
-0.012652752 0.041618742 0.043200694 -0.46806854 0.78068179 0.41406247 0
-0.0049994616 0.043705143 0.045283794 -0.2644408 0.88008583 0.3943601 0
0.0049466523 0.045238808 0.045390505 -0.014818957 0.92676008 0.37536147 0
0.015210086 0.044017889 0.045376685 0.23696639 0.90184098 0.36128896 0
0.022985259 0.041675676 0.043944228 0.45804733 0.81554317 0.35366938 0
-0.011355853 -0.020868285 0.051444896 -0.43568116 -0.74532187 0.5046556 0
-0.0041868715 -0.02236145 0.054169845 -0.25835717 -0.82592797 0.50109339 0
0.0051093274 -0.023417953 0.05515597 -0.028433733 -0.87126321 0.48999169 0
0.014643236 -0.022590969 0.05472422 0.21932025 -0.85314333 0.47333393 0
0.022013608 -0.021182198 0.052381165 0.40556055 -0.79101706 0.45805314 0
-0.021388223 -0.011546668 0.052119076 -0.65281558 -0.5615356 0.50843847 0
-0.015245219 -0.015190963 0.055276066 -0.56436419 -0.64901495 0.51016933 0
-0.0073692654 -0.018772038 0.057865653 -0.39555475 -0.76679671 0.50552875 0
0.018173918 -0.01920625 0.058718216 0.30493379 -0.83203173 0.46339896 0
0.02571399 -0.016403053 0.055908278 0.54864979 -0.70851326 0.44383833 0
0.031970382 -0.012327567 0.053099491 0.7218743 -0.54998994 0.42001012 0
-0.023349294 -0.0045905113 0.05490116 -0.7837311 -0.36284798 0.50409007 0
-0.018819313 -0.0086372308 0.058539271 -0.67780811 -0.53015971 0.50941819 0
0.035442345 -0.005060758 0.055056263 0.82308489 -0.39612278 0.40696192 0
-0.025821943 0.0049311253 0.055200081 -0.86300522 -0.10774464 0.49357185 0
0.038200103 0.0047510946 0.055682659 0.91632587 -0.11748595 0.38281059 0
0.040345088 0.0062405476 0.050872151 0.92211771 -0.080734842 0.3783924 0
-0.025477102 0.014868485 0.055168901 -0.86344117 0.16258308 0.47753116 0
0.038052302 0.015075902 0.055376954 0.91405761 0.17874812 0.36407131 0
0.040388077 0.012029101 0.05099275 0.91887116 0.14733921 0.36601493 0
-0.022729697 0.024012191 0.054317519 -0.79072767 0.40630764 0.4578906 0
-0.018567232 0.027972413 0.057195757 -0.7016111 0.55819941 0.44289428 0
0.029574241 0.029437844 0.05907926 0.68613309 0.6384182 0.34877431 0
0.034490626 0.025014775 0.054989986 0.79657805 0.49009544 0.35393471 0
-0.020471878 0.030547576 0.050860535 -0.67861301 0.58988261 0.43763325 0
-0.014330942 0.034034383 0.054649841 -0.57594264 0.69642359 0.4281171 0
-0.0060002091 0.038183838 0.056501154 -0.35235456 0.84376401 0.40485623 0
0.0043654661 0.039621107 0.059086587 -0.067090347 0.92206311 0.38118041 0
0.016662475 0.03885629 0.057240199 0.26726693 0.89348674 0.36090142 0
0.025211584 0.035303034 0.05495828 0.54587305 0.75983435 0.35309255 0
0.031021476 0.031631574 0.052217249 0.68621475 0.6383189 0.34879565 0
-0.003243919 0.041040491 0.052430574 -0.26554257 0.8799603 0.39389977 0
0.0050341976 0.041705232 0.0540924 -0.032551225 0.92546803 0.37742463 0
0.014344438 0.041224666 0.052934561 0.23181812 0.90291035 0.36195743 0
0.020503838 0.040272918 0.050591942 0.48473603 0.80097735 0.3513777 0
-0.00015399999 -0.020001 0.060056999 -0.20061347 -0.84480387 0.49604493 0
0.0055352855 -0.020386893 0.060702089 -0.023269549 -0.87167197 0.48953712 0
0.011501669 -0.020264924 0.060491327 0.073731288 -0.87331092 0.48155141 0
-0.012072849 -0.012439726 0.062579587 -0.56303215 -0.65015435 0.51019037 0
-0.0049605621 -0.014908396 0.065424256 -0.34457883 -0.79105169 0.50547278 0
0.0049232501 -0.017440204 0.065688297 -0.069867142 -0.86734176 0.49278468 0
0.015148519 -0.016374426 0.065524988 0.22338717 -0.85216528 0.47319394 0
0.023178117 -0.013093974 0.064422347 0.54715407 -0.71022075 0.44295472 0
-0.020809475 -0.0013252943 0.061284564 -0.77884722 -0.37413165 0.50341105 0
-0.015744064 -0.0054238113 0.065465525 -0.7036823 -0.49509993 0.50961488 0
-0.0094930464 -0.009527361 0.069336317 -0.63366538 -0.5841254 0.50721359 0
0.027694512 -0.0076704654 0.066513166 0.71295249 -0.56003439 0.42197174 0
0.031999093 -0.0029001844 0.064442016 0.83303154 -0.3773126 0.40459058 0
-0.021554047 0.0058291159 0.062889218 -0.85843158 -0.13348398 0.49525476 0
-0.018435597 0.0044544134 0.067758426 -0.83821726 -0.21564683 0.50088757 0
0.034231044 0.0050199479 0.065174997 0.91180438 -0.14161956 0.38543054 0
-0.021410536 0.014805746 0.062586553 -0.8644948 0.15623043 0.47774544 0
-0.018560899 0.015614592 0.067455433 -0.86028826 0.18024558 0.47688106 0
0.034204297 0.014772695 0.065145276 0.90928423 0.20031586 0.36479548 0
-0.02048979 0.020967679 0.060853496 -0.80764699 0.36974624 0.45934099 0
-0.015149397 0.025367463 0.065513387 -0.74759299 0.48671353 0.45190114 0
-0.0093577579 0.029525515 0.069304481 -0.57548279 0.69683778 0.42806166 0
0.028088249 0.027221629 0.065997846 0.69774437 0.62513864 0.34979212 0
0.031954225 0.022501608 0.064218134 0.81877995 0.45241112 0.35344526 0
-0.011800109 0.031498291 0.062619157 -0.57768571 0.6948365 0.42834735 0
-0.0050149923 0.034160204 0.065379031 -0.37763017 0.83151835 0.40739736 0
0.0049043731 0.037172575 0.065118961 -0.060278062 0.92284161 0.38043371 0
0.015562428 0.036001466 0.065054588 0.26390913 0.89409906 0.36185479 0
0.023247523 0.032375444 0.064666435 0.51514673 0.78126317 0.35249341 0
-0.0032440485 -0.011552005 0.072054714 -0.35849109 -0.78485107 0.505463 0
0.0048262523 -0.01238909 0.074485287 -0.095967636 -0.86409283 0.49409908 0
0.014442855 -0.012137082 0.073567122 0.2252792 -0.8511219 0.47417378 0
0.020945678 -0.0106978 0.071100131 0.53505599 -0.71994543 0.4420335 0
-0.011957885 -0.0034930054 0.07280916 -0.69424009 -0.50823277 0.50963736 0
-0.0061857374 -0.0066393679 0.07617265 -0.53466421 -0.67351878 0.51039851 0
0.0032509023 -0.009521951 0.079092905 -0.16520165 -0.85222304 0.49641138 0
0.016918464 -0.0088294009 0.077926531 0.37235069 -0.80544519 0.46109977 0
0.024616521 -0.0040912074 0.076012775 0.72644264 -0.67803568 0.11202079 0
0.030243514 -0.00053934084 0.070435822 0.85733008 -0.32707489 0.3975012 0
-0.01434616 0.0048882179 0.074778639 -0.83178264 -0.23731448 0.50181621 0
-0.0097433105 0.00032681256 0.07963381 -0.77889073 -0.37401912 0.50342727 0
0.0097721433 0.0097648576 0.079988718 -0.049807537 -0.05253727 -0.99737608 0
0.016800011 0.0063022859 0.07982026 -0.049806055 -0.052541051 -0.99737602 0
0.025453771 0.0048844251 0.07897117 0.23076519 -0.1444605 -0.96222585 0
0.031046942 0.006408806 0.074724287 0.9700681 -0.17387462 0.16951554 0
-0.01436918 0.015226615 0.075063385 -0.85891539 0.18599035 0.47714978 0
-0.00043725001 0.019615028 0.079979658 -0.049803544 -0.052539725 -0.99737614 0
0.0061395271 0.01665367 0.079807028 -0.049805492 -0.05254031 -0.99737602 0
0.01528506 0.015130149 0.07943096 -0.049813271 -0.052548856 -0.99737519 0
0.025334144 0.015196005 0.078700677 0.14506906 -0.00097369496 -0.98942101 0
0.031042023 0.014536133 0.07570266 0.98570669 0.16699786 0.022227859 0
-0.012261634 0.022777582 0.073368482 -0.77042139 0.44613492 0.4554278 0
-0.0047458918 0.026440062 0.078041017 -0.55179071 0.51334125 -0.65727299 0
0.004969426 0.025143431 0.079419084 -0.050126433 -0.051595792 -0.99740928 0
0.015331575 0.025252536 0.078925885 -0.022802729 -0.0068777157 -0.9997164 0
0.024586851 0.024583481 0.077351987 0.71462357 0.58211619 -0.3878839 0
0.030290419 0.020494442 0.070647307 0.83359945 0.42510694 0.35269824 0
-0.0026463757 0.031578716 0.075333044 -0.44927052 0.89337403 -0.0062338607 0
0.0050907941 0.032811847 0.077097811 -0.15750086 0.92616475 -0.34265485 0
0.014783268 0.032394215 0.076873884 0.2770659 0.91281271 -0.30001232 0
0.021142246 0.030713648 0.075422369 0.51474768 0.85674119 0.032083277 0
0.0059098932 -0.0108348 0.085465491 -0.12699319 -0.99181718 -0.013087278 0
0.013222096 -0.010684165 0.085311756 0.19875634 -0.97983426 -0.020512257 0
-0.010598477 -0.00084566907 0.085399799 -0.85237885 -0.52290583 0.0044397763 0
-0.0045183054 -0.004829519 0.084192485 -0.62263834 -0.7793029 -0.070770323 0
0.0049587977 -0.0046554189 0.081958286 -0.20393075 -0.9308911 0.30307403 0
0.015374915 -0.0051146597 0.082002826 0.36574098 -0.93037498 0.025216972 0
0.024013584 -0.0043131826 0.084446147 0.69248909 -0.7213695 0.0092138015 0
-0.012633687 0.0051463135 0.084798329 -0.94419104 -0.31315526 -0.10216141 0
-0.0047290246 0.005164878 0.081692494 -0.11612815 -0.030316744 0.99277145 0
0.0048178416 0.0046492522 0.081323087 0.049806274 0.052541163 0.99737597 0
0.014853436 0.0042580864 0.081070594 0.049814004 0.052548803 0.99737513 0
0.025448274 0.0042594755 0.082213283 0.47183356 -0.13149871 0.87182635 0
0.031071141 0.0066279755 0.085426562 0.97350371 -0.22570167 -0.03673251 0
-0.013391687 0.014860259 0.084259339 -0.97837013 0.12041648 -0.16820149 0
-0.0048811901 0.015068379 0.081218906 0.019303178 0.065247968 0.99768233 0
0.0043326169 0.014752829 0.081069633 0.049812853 0.052548651 0.99737531 0
0.015358437 0.015205653 0.080800749 0.049806591 0.05254228 0.99737585 0
0.02372068 0.01476389 0.080406785 0.06093315 0.054650825 0.99664462 0
0.031366792 0.014939179 0.085131265 0.99144465 0.11803176 -0.055731468 0
-0.011711623 0.022810865 0.08494322 -0.88815993 0.45141047 -0.086025946 0
-0.0060449135 0.025071686 0.082657993 -0.68021435 0.64932221 0.34013113 0
0.0050581894 0.024704289 0.0808139 0.04852125 0.056402564 0.99722832 0
0.014699344 0.024305159 0.080354452 0.04982635 0.052622676 0.99737066 0
0.026339419 0.025131363 0.084385715 0.8092593 0.58287865 0.073156431 0
0.03022762 0.02055523 0.087310463 0.89288396 0.44511646 -0.068040513 0
-0.0032377064 0.031897143 0.085279807 -0.51177287 0.85889506 -0.019692332 0
0.0050941519 0.034468051 0.084849969 -0.15935038 0.98712677 0.013718532 0
0.015156564 0.033855934 0.084920652 0.3092016 0.95042062 -0.03308899 0
0.021627182 0.031103972 0.085642189 0.52280235 0.84950328 -0.070865579 0
0.0068455767 -0.010555581 0.093962133 -0.10169017 -0.99142569 0.08206135 0
0.012232211 -0.010525911 0.093828559 0.11472569 -0.99094814 0.069712393 0
-0.010267039 -0.00044841258 0.093091905 -0.87680256 -0.47567451 0.070362963 0
-0.0049762116 -0.0046601715 0.095234729 -0.59247398 -0.7253809 0.35042429 0
0.0041714199 -0.0060221674 0.09711244 -0.068587154 -0.36597309 0.92809457 0
0.015767191 -0.0061356155 0.096379325 0.21392129 -0.43645579 0.87392449 0
